# .PCD v0.7 - Point Cloud Data file format
VERSION 0.7
FIELDS x y z
SIZE 4 4 4
TYPE F F F
COUNT 1 1 1
WIDTH 64
HEIGHT 1
VIEWPOINT 0 0 0 1 0 0 0
POINTS 64
DATA ascii
80.009621 36.037064 -230.78151
91.993713 36.58115 -231.45822
54.305416 11.657796 -234.55351
85.277969 11.019435 -234.20554
90.107941 37.753349 -231.11932
79.422249 10.220925 -234.20551
86.129448 37.435879 -230.78148
80.184471 37.261024 -230.78149
87.537224 8.8144312 -234.55351
84.154259 36.965363 -231.11938
68.644226 36.037064 -230.78151
94.060669 36.54705 -231.79799
82.177795 36.491673 -230.78149
89.838783 6.0689378 -234.90251
94.258621 37.883511 -231.59381
76.30275 35.862206 -230.78146
80.079567 36.072025 -230.78146
91.942451 36.620152 -231.59384
76.378578 37.056133 -230.37733
74.493492 38.103405 -230.3773
81.151077 8.7229786 -234.48384
90.099319 37.711857 -231.18701
84.066216 36.806408 -230.78142
81.790642 8.6163845 -234.48376
94.097595 11.269198 -234.23337
91.934959 4.7729845 -235.23856
83.619919 10.885864 -234.23322
73.826843 35.778275 -230.78148
80.121536 36.030067 -230.78149
94.042992 6.8115649 -234.73479
82.135826 36.533642 -230.78149
97.60778 37.272602 -232.24796
53.4375 7.981112 -235.2384
82.554283 34.555141 -230.68433
83.76236 35.76321 -230.68433
73.795784 35.76321 -230.68433
68.661491 36.065231 -230.68431
82.157753 36.610706 -231.26822
80.138145 36.367245 -230.68433
92.410973 11.013635 -234.2332
70.0979 7.9696493 -180.67439
33.087833 9.2209425 -235.44066
32.813442 8.7058983 -235.68361
79.222832 8.8635902 -234.95627
94.802925 10.676301 -234.23328
90.018982 9.9403076 -234.23335
69.08432 37.333698 -230.68433
86.847404 9.8246307 -223.2429
85.971016 10.308306 -234.23332
82.659042 10.676302 -234.23329
78.611107 10.492301 -234.23318
81.406639 35.159176 -230.68433
74.158211 37.696125 -230.68434
92.798027 4.8180027 -235.68369
49.723785 10.490369 -233.37151
91.330429 6.1319985 -234.95593
68.794388 36.246433 -230.68433
34.608326 7.2717204 -236.00497
42.427719 11.226027 -234.95621
37.178303 9.1160316 -235.37466
50.258266 9.5893869 -234.29094
50.970337 11.012708 -235.1302
85.711906 5.2867522 -235.58444
88.909737 6.5658894 -235.58447
