# .PCD v0.7 - Point Cloud Data file format
VERSION 0.7
FIELDS x y z
SIZE 4 4 4
TYPE F F F
COUNT 1 1 1
WIDTH 70
HEIGHT 1
VIEWPOINT 0 0 0 1 0 0 0
POINTS 70
DATA ascii
78.768745 5.9799533 -234.90253
71.896683 34.076077 -231.11934
69.168777 35.687355 -230.78148
65.322037 35.59993 -230.78146
78.550789 36.089821 -231.11937
79.076126 37.490692 -231.11938
63.573513 37.873005 -230.78145
82.897202 35.310905 -220.7742
69.168785 36.998749 -230.78145
71.267006 36.386765 -230.78148
75.113762 37.173599 -230.78145
82.98568 6.7909446 -235.2525
74.589203 36.736473 -230.78151
57.62854 35.774784 -230.78146
67.168755 35.739609 -231.11937
71.182076 34.033508 -231.18709
68.45092 9.9843178 -234.06665
72.707123 10.729149 -234.06659
72.735771 35.862209 -230.78149
67.070564 35.54747 -230.78143
62.874115 35.547474 -230.78145
69.168793 35.757298 -230.78143
81.061073 36.345615 -231.18706
83.162994 37.501663 -231.18701
87.235741 11.02874 -233.65086
80.581062 9.5586977 -234.06662
72.883369 4.5821323 -235.32272
91.183929 38.217453 -232.34404
70.579018 10.729149 -234.06657
57.628548 35.757294 -230.78143
72.631126 10.630311 -234.23325
83.10881 11.013642 -234.23334
62.748203 35.526489 -230.78146
81.047523 36.358395 -231.26834
81.575485 11.013643 -234.23334
81.128693 37.41489 -230.78139
86.598526 36.863037 -231.26836
58.345009 37.085033 -230.29657
71.864449 9.9914284 -234.23334
78.456528 10.205673 -244.25386
74.701836 36.367249 -230.68434
71.681664 34.253128 -230.68436
68.49118 10.400308 -234.23325
81.249374 37.367664 -231.26836
83.211037 10.860302 -234.23331
67.571167 10.246976 -234.23334
87.343788 9.7864199 -234.95609
77.746307 4.8031316 -234.95624
21.334894 9.4464493 -235.68361
71.575104 10.301963 -234.08926
83.763039 10.308304 -234.23331
43.786144 9.7864237 -234.95615
26.518753 8.7058992 -235.68361
41.719067 62.187729 -227.70335
87.021461 9.8606348 -234.08922
76.87104 9.6399708 -234.08902
82.502007 10.642935 -237.59598
57.928295 11.844759 -234.22733
41.997608 61.965305 -226.88895
58.634846 2.1994374 -236.00516
82.825592 5.9105229 -234.95624
67.641533 10.117961 -233.9166
57.876873 36.098721 -230.8522
58.850216 2.4087057 -235.58403
82.711342 5.8947973 -234.33134
78.037102 6.5658889 -235.58444
68.888756 37.110836 -230.65076
86.528328 10.347951 -234.33134
44.222874 8.7823696 -239.48599
63.253304 37.42392 -230.65034
