# .PCD v0.7 - Point Cloud Data file format
VERSION 0.7
FIELDS x y z
SIZE 4 4 4
TYPE F F F
COUNT 1 1 1
WIDTH 78
HEIGHT 1
VIEWPOINT 0 0 0 1 0 0 0
POINTS 78
DATA ascii
73.554893 35.811832 -223.90712
73.236572 10.256262 -227.1288
85.332771 36.509159 -224.5441
81.795326 4.3443394 -228.44362
85.67305 36.253967 -224.54401
70.840599 33.606464 -223.90714
80.115036 37.221779 -224.22505
77.456718 35.727013 -223.90712
64.133522 34.998795 -223.58995
67.407585 7.6971397 -227.78429
66.0728 35.203033 -223.27362
78.747536 17.065987 -226.15257
72.028114 36.40559 -223.90712
81.737053 4.3430767 -228.37752
77.864403 5.5792146 -227.98169
79.798889 6.293776 -227.5872
61.762981 34.967781 -223.71674
84.015915 35.393265 -224.48022
68.068367 35.171185 -223.71675
64.407181 36.594982 -223.71675
79.523712 9.9837656 -226.80241
78.834808 9.6911678 -227.19421
71.853378 4.2319126 -227.98167
67.47393 7.8321185 -227.19418
26.874218 10.035677 -227.98167
42.261356 10.910185 -227.12865
69.746124 7.9353967 -227.19412
71.613586 10.05256 -226.95894
70.734879 33.775631 -224.17424
65.953011 35.171181 -223.71675
64.113617 35.099548 -223.26111
61.677803 34.97776 -223.26105
56.733078 11.835449 -226.86505
84.168678 8.4605665 -227.42989
81.985504 37.199738 -224.17427
80.446732 10.445614 -227.4299
73.61335 35.708504 -223.26102
79.037766 4.01086 -228.3775
85.584625 36.418179 -224.63353
68.062408 10.040085 -226.67734
35.384178 8.944314 -228.37743
71.625336 35.09243 -223.89948
57.121716 34.918907 -223.35208
37.681931 8.4746304 -227.80797
80.429604 10.536114 -227.24127
79.833084 35.883892 -223.89951
85.612503 36.412838 -224.44952
26.050123 8.0272532 -227.80794
79.037766 4.0108547 -228.3775
89.947472 37.68084 -225.00233
64.432175 36.380997 -223.3521
56.499577 35.532127 -223.89949
78.942642 10.999995 -245.56702
82.690689 9.6435823 -227.24129
69.514763 34.476841 -223.89949
81.976662 10.357608 -227.24129
23.810009 10.392131 -267.67166
77.516663 5.310225 -228.19493
70.230568 33.95396 -224.16321
69.807953 35.644402 -224.16318
81.818794 5.7404351 -228.19489
64.268639 36.252705 -224.00473
56.70335 11.55806 -227.54001
80.239563 9.7922239 -227.37674
42.945271 9.3635588 -227.37686
85.997185 9.4696541 -227.86694
66.950752 8.2918816 -227.37697
57.12962 36.912239 -224.16319
40.943237 62.061043 -221.1931
39.029469 10.185331 -227.54002
79.295586 5.4744287 -227.8667
66.923203 8.3097477 -227.86703
85.997231 9.5985279 -227.86665
40.70694 61.604649 -220.45506
81.807915 5.7420826 -228.26059
44.007214 8.2208176 -228.26056
85.526024 10.079869 -228.26056
75.611092 10.07987 -228.26059
