# .PCD v0.7 - Point Cloud Data file format
VERSION 0.7
FIELDS x y z
SIZE 4 4 4
TYPE F F F
COUNT 1 1 1
WIDTH 85
HEIGHT 1
VIEWPOINT 0 0 0 1 0 0 0
POINTS 85
DATA ascii
42.537205 36.273594 -236.30896
64.896339 17.350021 -239.53642
57.800232 5.3297615 -241.7373
56.997494 15.831418 -239.90038
56.797485 5.5044851 -241.36768
70.065941 36.347298 -237.37524
47.621593 36.05901 -236.66338
51.925003 36.238316 -236.66336
63.746666 6.784596 -241.36768
63.495941 36.741669 -237.0188
66.306877 7.3332143 -241.36765
66.368187 11.668641 -240.26552
59.545223 36.921246 -237.0188
58.354115 9.1479568 -240.99916
50.669827 37.350025 -236.66339
52.351265 11.122529 -240.26555
76.115402 38.833641 -237.73271
71.50473 37.876007 -237.3752
64.547783 10.84947 -240.26562
47.679001 36.012341 -236.5925
58.539593 36.939205 -237.01878
50.260307 36.119892 -236.59236
54.014259 36.400471 -237.01865
63.495945 36.723705 -237.01875
66.392395 11.679304 -240.48523
65.866379 36.939198 -237.01874
56.760933 5.4679055 -241.36761
59.177135 11.351336 -240.48509
54.049488 11.112377 -240.04625
62.203018 37.908916 -237.01863
64.142426 38.232162 -237.01875
48.452286 38.52433 -236.16776
67.239807 18.281143 -239.60896
64.643234 10.367435 -240.48524
51.981129 36.227451 -236.59251
57.000916 15.884808 -239.60901
62.229286 16.538355 -239.60899
64.838173 11.696894 -240.39731
57.65839 36.57642 -236.76282
53.15221 9.0940485 -240.92566
65.924408 36.834732 -236.76279
42.584297 36.368721 -236.2524
66.41185 11.696894 -240.39729
67.985519 11.696894 -240.39729
64.81617 18.174143 -239.34753
47.584183 36.059792 -236.7628
63.221073 7.5465188 -241.03157
67.817909 5.6680875 -241.6692
63.536633 6.2842627 -241.03154
54.018688 36.534801 -236.66054
67.954529 7.2309542 -241.03154
53.298016 10.831368 -240.397
53.123001 9.1243448 -241.03157
68.719917 10.673998 -240.39722
66.159653 38.142769 -236.86508
65.74559 7.2309542 -241.03154
60.380993 9.1243439 -241.03157
61.177906 11.278843 -242.43886
55.372833 35.586067 -237.15196
53.882496 36.703819 -237.15196
63.261738 7.5981183 -241.66928
50.156673 36.703823 -237.15199
55.943718 36.961262 -236.4155
75.354408 37.752888 -237.89322
61.558773 9.5267591 -242.43893
65.566856 6.2952094 -241.20958
42.476624 36.523777 -236.70949
55.864567 36.970032 -236.70944
52.833893 9.4784517 -241.20963
28.732189 10.387959 -241.20973
59.657234 37.332462 -237.59621
26.961531 63.079533 -233.7442
25.094193 8.5689592 -241.20973
67.840607 7.204711 -241.20964
80.902573 14.199326 -240.29613
70.573563 11.481166 -240.29614
43.24152 3.0829039 -242.50047
26.893265 63.30249 -233.91647
71.769417 37.606304 -237.06345
43.381409 3.1320167 -242.05623
27.220224 62.815498 -233.09149
80.396477 14.225178 -240.73329
42.448479 37.143955 -236.85074
50.16444 37.465439 -236.85103
47.592419 36.822433 -236.85104
